ply
format ascii 1.0
element vertex 1257
property float x
property float y
property float z
property uchar red
property uchar green
property uchar blue
end_header
16.7293 -18.1627 34.2335  255 255 255
77.7258 -20.2516 26.0409  255 255 255
-12.9744 -18.0945 36.5659  255 255 255
-63.1196 -23.7627 -8.53488  255 255 255
69.0813 -24.6458 -0.954804  255 255 255
70.2358 -24.3139 1.95154  255 255 255
-52.8009 -24.1046 -8.04164  255 255 255
70.7447 -24.3591 3.03148  255 255 255
-5.29373 -18.2536 39.3139  255 255 255
-0.0617701 -18.3336 39.6173  255 255 255
5.63419 -18.7591 38.3674  255 255 255
-63.2157 -24.3436 -7.74072  255 255 255
-68.9559 -24.6421 -7.80953  255 255 255
-69.6786 -24.7375 -7.89185  255 255 255
73.3394 -23.9375 12.7471  255 255 255
-2.72868 -18.9895 39.4998  255 255 255
-59.6408 -24.8878 -6.11325  255 255 255
-9.64978 -19.1922 38.0689  255 255 255
24.6962 -20.7817 31.8602  255 255 255
70.4291 -25.9243 1.24321  255 255 255
-65.1229 -25.3474 -6.30468  255 255 255
6.95312 -19.7011 37.9316  255 255 255
72.7041 -25.3536 7.00969  255 255 255
24.3661 -21.0746 32.4441  255 255 255
13.6221 -20.2129 37.055  255 255 255
14.5468 -20.2663 36.9829  255 255 255
-2.69974 -19.9886 39.2264  255 255 255
11.3303 -20.4752 37.4761  255 255 255
24.3286 -21.4352 32.6135  255 255 255
7.06901 -20.6288 38.1722  255 255 255
74.9874 -25.8748 13.0289  255 255 255
-17.4095 -20.5924 37.1765  255 255 255
-16.355 -21.0196 37.9407  255 255 255
-5.77417 -21.439 39.293  255 255 255
-48.2384 -27.8819 -2.89009  255 255 255
-24.9761 -22.2198 34.4562  255 255 255
-28.4743 -22.4607 34.5507  255 255 255
7.14966 -22.3927 39.8041  255 255 255
71.1686 -30.3431 0.1227  255 255 255
7.60712 -22.7913 40.4146  255 255 255
79.4468 -27.3073 24.1112  255 255 255
-5.23377 -22.8951 41.256  255 255 255
-5.59856 -23.1018 41.3957  255 255 255
77.319 -28.9676 18.3654  255 255 255
-24.3409 -23.7785 36.2828  255 255 255
-1.12342 -23.3872 41.3654  255 255 255
74.7189 -30.6236 9.96879  255 255 255
72.9747 -31.8733 4.21999  255 255 255
-20.8499 -24.1331 37.1087  255 255 255
-27.4708 -25.0899 31.7027  255 255 255
20.6358 -25.1865 36.8812  255 255 255
76.4292 -30.5644 14.4196  255 255 255
-11.7142 -24.2851 39.2518  255 255 255
-16.335 -24.4605 37.8073  255 255 255
73.2702 -32.1707 7.02617  255 255 255
78.8001 -29.0349 24.9129  255 255 255
78.8001 -29.0349 24.913  255 255 255
77.5493 -30.668 20.0129  255 255 255
74.8278 -32.3506 11.8912  255 255 255
76.823 -31.8828 15.3586  255 255 255
76.8229 -31.8828 15.3587  255 255 255
-20.7986 -25.473 38.9027  255 255 255
74.9023 -33.6171 7.78355  255 255 255
76.2287 -32.7828 12.3274  255 255 255
-12.2463 -25.6591 38.8197  255 255 255
74.9202 -33.5594 8.42377  255 255 255
-6.38486 -25.6833 40.7413  255 255 255
3.54526 -25.8913 40.5838  255 255 255
75.4322 -34.0707 8.07876  255 255 255
75.2148 -34.0495 8.26223  255 255 255
75.5477 -34.0952 8.01949  255 255 255
-9.92438 -26.0814 40.1011  255 255 255
78.2132 -32.2644 20.5414  255 255 255
-23.3783 -27.1561 34.6622  255 255 255
3.84163 -26.5166 40.4085  255 255 255
-62.1449 -33.1192 3.34958  255 255 255
14.8253 -27.0957 40.2805  255 255 255
78.8948 -32.8742 19.7679  255 255 255
14.8486 -27.3445 40.624  255 255 255
14.8602 -27.351 40.5692  255 255 255
-22.459 -27.7906 35.2799  255 255 255
76.2467 -34.5752 14.4969  255 255 255
-23.1868 -28.2231 34.162  255 255 255
-19.5789 -27.2962 39.1915  255 255 255
13.5451 -27.6806 40.9155  255 255 255
17.2526 -28.0099 41.2005  255 255 255
-13.2702 -27.4345 41.2374  255 255 255
14.0579 -28.1953 40.6674  255 255 255
76.0119 -36.1167 12.6376  255 255 255
76.1946 -36.5427 10.128  255 255 255
76.2244 -36.5598 10.1798  255 255 255
-9.52032 -27.7422 41.5244  255 255 255
77.0837 -36.6646 12.1793  255 255 255
80.0603 -35.1487 20.4115  255 255 255
-4.98943 -28.2364 42.2419  255 255 255
8.00248 -28.5068 42.3293  255 255 255
-5.77032 -28.2406 42.2058  255 255 255
7.23608 -28.5994 42.449  255 255 255
80.4211 -35.5897 21.1234  255 255 255
8.7114 -28.8806 42.7577  255 255 255
-13.2004 -28.5431 42.4576  255 255 255
-15.3571 -29.1509 40.6635  255 255 255
-7.9854 -28.8295 43.0092  255 255 255
-9.90516 -28.7834 43.0776  255 255 255
-4.48532 -28.9162 43.1505  255 255 255
-4.49933 -28.926 43.1032  255 255 255
-9.26065 -29.5551 43.768  255 255 255
-60.5358 -37.2084 8.80797  255 255 255
-0.45165 -30.1547 44.0924  255 255 255
-3.71303 -30.1968 44.0729  255 255 255
0.134499 -30.6605 43.7235  255 255 255
3.10034 -31.0989 43.1677  255 255 255
-16.2731 -31.9488 38.0224  255 255 255
-14.1867 -31.9162 39.0601  255 255 255
-0.903475 -31.485 42.9804  255 255 255
80.0811 -40.1632 17.8681  255 255 255
-3.24318 -31.3925 43.4202  255 255 255
-24.2045 -34.6298 29.3097  255 255 255
-27.6306 -35.8865 24.6049  255 255 255
-14.6907 -32.7319 37.9875  255 255 255
69.0535 -42.3505 17.1812  255 255 255
-13.4202 -37.1722 35.3301  255 255 255
-47.6539 -42.7218 15.845  255 255 255
53.0144 -44.9105 18.5806  255 255 255
17.0682 -40.329 30.8655  255 255 255
16.9114 -40.2046 31.2091  255 255 255
10.1734 -39.8452 34.3181  255 255 255
9.89632 -40.3352 34.1386  255 255 255
72.7912 -46.1077 22.9641  255 255 255
41.9801 -46.6989 21.1758  255 255 255
40.0927 -46.8143 23.4708  255 255 255
0.289064 -41.584 36.1325  255 255 255
0.92704 -42.2213 35.0502  255 255 255
2.56057 -42.9715 34.1724  255 255 255
19.6193 -44.8847 32.0388  255 255 255
2.95444 -43.8781 33.5598  255 255 255
64.0549 -49.0247 26.1316  255 255 255
-7.1556 -43.6968 35.6728  255 255 255
60.796 -50.059 27.1717  255 255 255
76.5609 -50.6235 29.3207  255 255 255
60.1452 -50.5474 27.9174  255 255 255
60.1519 -50.5937 27.9561  255 255 255
35.6919 -50.4823 26.2224  255 255 255
66.4848 -51.0765 29.5104  255 255 255
68.3686 -51.1371 29.7873  255 255 255
61.5897 -51.2604 29.0189  255 255 255
56.7141 -51.1802 29.2337  255 255 255
-54.7666 -50.2568 24.5163  255 255 255
64.1677 -52.0925 30.6469  255 255 255
-54.2416 -50.3378 25.787  255 255 255
58.726 -52.2371 30.3559  255 255 255
15.9949 -50.6809 30.8325  255 255 255
-16.306 -49.4323 32.0595  255 255 255
58.0192 -52.8279 31.0966  255 255 255
34.7239 -53.1041 29.5794  255 255 255
-13.5075 -50.7281 31.9364  255 255 255
55.5449 -53.605 32.0107  255 255 255
-2.22732 -50.6538 35.0353  255 255 255
-0.167374 -51.9679 34.1108  255 255 255
-34.7211 -53.1419 29.9304  255 255 255
48.5456 -54.739 33.6358  255 255 255
47.3008 -55.3739 32.6708  255 255 255
70.3091 -55.452 35.4447  255 255 255
48.2545 -55.6971 32.9537  255 255 255
61.8309 -55.5042 35.0224  255 255 255
26.3038 -55.6002 32.698  255 255 255
26.2639 -55.5615 32.7657  255 255 255
-33.8201 -54.7254 31.8592  255 255 255
-42.0272 -54.792 31.5616  255 255 255
-34.5772 -55.0769 32.205  255 255 255
-28.7309 -55.8065 33.2272  255 255 255
-26.8264 -56.057 33.9648  255 255 255
39.0071 -58.6184 36.8092  255 255 255
54.4025 -58.7098 38.5137  255 255 255
62.9474 -58.8473 39.2921  255 255 255
53.6351 -59.2384 37.9938  255 255 255
33.9655 -58.7946 37.2456  255 255 255
67.8643 -59.1688 40.5574  255 255 255
-25.9252 -57.5207 35.5007  255 255 255
56.3117 -59.3405 40.0005  255 255 255
56.3119 -59.3407 40.0002  255 255 255
-38.0103 -57.6959 35.6471  255 255 255
-20.7829 -58.075 36.3848  255 255 255
-30.882 -58.6532 36.8457  255 255 255
35.66 -60.7123 39.0139  255 255 255
57.4534 -60.7471 41.9687  255 255 255
-45.4953 -59.462 36.7303  255 255 255
-25.1786 -59.3841 37.6616  255 255 255
-44.9808 -59.3752 37.3352  255 255 255
-41.0388 -59.4652 37.4038  255 255 255
-22.7096 -59.682 37.8018  255 255 255
22.6688 -60.6549 39.6682  255 255 255
-26.4786 -60.1263 38.5129  255 255 255
-11.068 -60.5857 39.3309  255 255 255
55.004 -61.8764 43.4263  255 255 255
-10.7272 -60.7589 39.2748  255 255 255
39.9949 -62.2064 42.4246  255 255 255
-8.54451 -60.8207 39.8362  255 255 255
-2.7292 -60.8732 40.8287  255 255 255
-18.481 -60.8905 39.7934  255 255 255
-1.07802 -61.2942 40.1941  255 255 255
4.12165 -61.3338 40.9066  255 255 255
44.6833 -62.3245 43.4423  255 255 255
-10.9287 -60.934 40.9729  255 255 255
-3.28887 -61.3707 40.7985  255 255 255
-16.9716 -60.9772 40.9274  255 255 255
-16.9372 -61.2598 40.3128  255 255 255
6.99888 -61.8999 41.0093  255 255 255
7.01687 -61.9247 40.9289  255 255 255
51.7512 -62.5838 44.5283  255 255 255
2.94702 -61.8883 40.8899  255 255 255
-8.00178 -61.652 40.9107  255 255 255
1.55788 -61.7424 41.7146  255 255 255
0.641888 -62.1907 40.9232  255 255 255
-11.8431 -61.8384 40.9354  255 255 255
55.7389 -63.2465 45.3572  255 255 255
-20.2268 -61.6532 41.4908  255 255 255
-20.2268 -61.6533 41.4908  255 255 255
32.8767 -62.9056 43.8166  255 255 255
45.7514 -63.4735 45.0883  255 255 255
34.2649 -63.417 44.745  255 255 255
54.2338 -63.8192 46.1212  255 255 255
54.2339 -63.8193 46.121  255 255 255
-20.8685 -62.6572 41.9742  255 255 255
-20.8676 -62.672 41.9417  255 255 255
-19.3367 -62.6585 42.0936  255 255 255
-19.3583 -62.4138 42.5966  255 255 255
48.41 -64.4785 45.1892  255 255 255
24.7012 -63.6065 44.5414  255 255 255
52.971 -64.151 46.4619  255 255 255
-7.17658 -63.0101 42.8305  255 255 255
-19.474 -62.8702 42.3894  255 255 255
62.7099 89.2613 -102.674  255 255 255
-84.5097 63.2209 -27.3469  255 255 255
6.70322 78.4037 -75.0697  255 255 255
6.78305 78.5038 -75.3448  255 255 255
73.7074 90.7487 -108.25  255 255 255
5.21505 78.018 -74.4214  255 255 255
-72.5198 64.6563 -33.3908  255 255 255
44.7161 84.9436 -95.5639  255 255 255
1.31356 76.8533 -72.7999  255 255 255
-166.035 98.7286 -141.917  255 255 255
-6.59502 74.6115 -69.9885  255 255 255
60.9421 59.3299 -15.2974  255 255 255
65.7171 87.4631 -106.337  255 255 255
-57.5639 66.0659 -43.9794  255 255 255
85.4815 90.7188 -115.581  255 255 255
20.0668 78.3813 -83.8023  255 255 255
80.683 89.3539 -113.843  255 255 255
61.1928 58.6455 -16.2156  255 255 255
-13.4577 72.3593 -67.0595  255 255 255
-13.4738 72.2718 -67.0781  255 255 255
-14.8801 71.8215 -65.9734  255 255 255
75.8114 87.7699 -111.99  255 255 255
85.4136 89.3748 -116.385  255 255 255
-60.8986 64.3887 -42.183  255 255 255
62.4722 57.1389 -14.2831  255 255 255
74.6702 86.3162 -112.385  255 255 255
37.6088 79.5799 -94.3304  255 255 255
73.3205 85.9543 -111.981  255 255 255
63.4836 56.0129 -11.3766  255 255 255
71.7034 85.3281 -111.206  255 255 255
-72.7639 60.5337 -33.8997  255 255 255
3.46497 73.2532 -76.7122  255 255 255
63.9374 55.2349 -10.3012  255 255 255
31.6553 78.0931 -91.5132  255 255 255
57.9548 59.0901 -24.6556  255 255 255
55.8959 47.2338 15.1664  255 255 255
38.2906 78.4191 -95.5897  255 255 255
71.6892 84.0469 -112.079  255 255 255
-98.907 59.17 -32.7032  255 255 255
56.1107 46.3666 15.3333  255 255 255
0.396646 70.9902 -76.4285  255 255 255
57.7744 45.2626 16.9912  255 255 255
-56.9388 61.6974 -46.7428  255 255 255
-37.6298 63.8226 -55.6992  255 255 255
-37.489 64.3327 -57.2676  255 255 255
-25.3299 66.0513 -63.4932  255 255 255
-26.7248 65.6667 -63.2854  255 255 255
81.5676 83.0596 -121.009  255 255 255
-73.0327 58.2498 -38.3082  255 255 255
60.1116 41.8192 22.987  255 255 255
61.8779 53.0348 -17.8771  255 255 255
21.114 71.3692 -89.996  255 255 255
-11.6193 65.8111 -72.7638  255 255 255
-127.443 69.6762 -83.9323  255 255 255
-12.5568 65.0562 -73.0509  255 255 255
-12.5819 65.0625 -73.0183  255 255 255
-23.1896 63.0077 -67.4498  255 255 255
-11.8711 64.7015 -73.4412  255 255 255
-60.1557 57.7876 -47.9357  255 255 255
63.7499 50.1997 -14.2388  255 255 255
80.8746 81.3099 -133.384  255 255 255
-0.85063 65.5273 -80.2665  255 255 255
60.4073 40.275 21.8587  255 255 255
-18.8822 62.5468 -70.8834  255 255 255
3.0012 65.7391 -82.724  255 255 255
62.8779 38.2751 27.8652  255 255 255
-0.30977 64.6337 -81.432  255 255 255
64.6381 48.6814 -13.0635  255 255 255
-17.0821 61.9456 -72.3203  255 255 255
-17.0785 61.9591 -72.3141  255 255 255
58.0268 40.7224 15.7533  255 255 255
63.2251 37.7715 27.881  255 255 255
60.5758 39.2968 21.3958  255 255 255
30.0031 68.2558 -97.1289  255 255 255
44.984 70.3778 -104.972  255 255 255
63.9682 37.066 29.1749  255 255 255
-6.80595 62.4832 -78.8758  255 255 255
-15.147 61.1746 -74.6551  255 255 255
65.1771 73.1312 -116.08  255 255 255
63.6103 37.2556 27.9961  255 255 255
64.2524 36.1283 32.3337  255 255 255
64.1926 36.3146 30.2948  255 255 255
64.4801 35.7821 32.6837  255 255 255
64.4801 35.7821 32.6837  255 255 255
62.7712 37.4691 25.1249  255 255 255
64.8396 35.5646 31.0017  255 255 255
62.7784 47.7906 -20.3104  255 255 255
65.0021 35.3125 31.5789  255 255 255
-71.9224 52.0183 -44.2902  255 255 255
65.6755 34.346 34.4705  255 255 255
56.7024 69.4123 -113.907  255 255 255
63.2595 36.1252 25.739  255 255 255
65.891 33.8291 35.2679  255 255 255
63.6096 35.7669 26.9469  255 255 255
65.9016 34.2548 33.0549  255 255 255
56.9681 39.0137 11.8833  255 255 255
66.1141 33.7665 34.3824  255 255 255
-87.7345 49.173 -35.9593  255 255 255
64.292 34.796 27.2788  255 255 255
59.7397 47.5687 -29.0156  255 255 255
66.1485 33.5228 32.4054  255 255 255
58.8463 47.5987 -29.6833  255 255 255
58.9376 47.6329 -29.799  255 255 255
58.8313 47.5884 -29.6681  255 255 255
-126.113 60.828 -89.5906  255 255 255
67.4812 32.2191 36.4248  255 255 255
-6.90293 57.5619 -83.3026  255 255 255
-55.5119 51.269 -55.2227  255 255 255
67.4334 32.0007 36.0334  255 255 255
67.7057 31.8724 36.895  255 255 255
-57.1042 50.2719 -53.4435  255 255 255
60.9744 45.3584 -26.4805  255 255 255
67.3433 31.8574 34.6248  255 255 255
68.2825 30.857 37.6984  255 255 255
57.661 46.3633 -34.7095  255 255 255
-7.57243 55.646 -82.5065  255 255 255
60.1789 34.7996 17.7921  255 255 255
-68.5466 48.1098 -49.3356  255 255 255
59.2465 44.9107 -30.7498  255 255 255
59.2294 44.9003 -30.7126  255 255 255
-26.2158 52.6667 -72.9465  255 255 255
-31.8861 52.1052 -70.8398  255 255 255
59.8766 44.3993 -30.4426  255 255 255
57.2302 35.8492 9.31543  255 255 255
56.9283 35.7448 9.74903  255 255 255
-42.494 50.2486 -64.614  255 255 255
56.9374 45.3848 -36.7005  255 255 255
61.5215 43.1402 -25.8326  255 255 255
57.1112 35.2584 9.97426  255 255 255
-44.6785 49.6896 -63.8652  255 255 255
57.4244 35.2941 8.39545  255 255 255
29.2522 58.1608 -105.36  255 255 255
57.608 34.5148 10.6554  255 255 255
61.2486 32.8786 18.8496  255 255 255
59.526 33.4072 14.7703  255 255 255
10.5571 54.6674 -96.2421  255 255 255
-80.7805 43.9008 -45.6483  255 255 255
-81.7352 43.4729 -44.7263  255 255 255
60.3592 32.0899 15.6889  255 255 255
-59.6042 45.7237 -59.3302  255 255 255
68.9324 28.0284 35.7234  255 255 255
-86.5213 41.1951 -39.3546  255 255 255
61.0587 39.4182 -29.0829  255 255 255
-4.93826 49.4811 -89.6916  255 255 255
-50.1488 44.366 -63.7005  255 255 255
61.5237 38.7912 -28.4157  255 255 255
65.0436 28.7018 25.9878  255 255 255
65.9764 28.2511 28.0488  255 255 255
-90.4941 40.146 -41.0784  255 255 255
-90.4977 40.1555 -41.0938  255 255 255
60.2144 30.265 14.1424  255 255 255
-2.38894 48.7149 -92.0652  255 255 255
73.3591 52.0543 -102.96  255 255 255
-20.4861 44.5585 -72.4288  255 255 255
-6.49608 47.706 -90.2013  255 255 255
62.5763 37.1425 -26.3207  255 255 255
-87.1996 39.6207 -43.3777  255 255 255
-87.2122 39.6052 -43.234  255 255 255
-140.76 52.1602 -107.419  255 255 255
-2.76885 47.9224 -93.0175  255 255 255
-42.1428 43.5745 -69.6531  255 255 255
63.1232 36.5095 -25.4131  255 255 255
59.8943 29.6347 12.6423  255 255 255
57.9613 38.8508 -39.6392  255 255 255
56.9248 30.5681 6.09743  255 255 255
56.8733 30.5522 6.15403  255 255 255
61.9364 36.6512 -30.435  255 255 255
-5.07099 46.6557 -91.8693  255 255 255
63.6472 35.7088 -24.4846  255 255 255
-2.70594 46.4378 -93.428  255 255 255
-8.13077 45.7364 -90.7627  255 255 255
60.9501 28.3338 15.091  255 255 255
62.9865 27.3964 19.5273  255 255 255
65.969 26.1102 26.4463  255 255 255
65.9572 26.0815 26.4431  255 255 255
-7.57686 44.9524 -91.4303  255 255 255
-43.4291 40.9107 -70.3385  255 255 255
-41.8001 41.019 -71.4625  255 255 255
-41.7618 40.9106 -70.9497  255 255 255
-136.496 46.7373 -100.478  255 255 255
-70.0133 38.0649 -55.5655  255 255 255
-35.8283 40.9981 -76.5653  255 255 255
-35.8516 40.9889 -76.5431  255 255 255
-62.8963 38.236 -59.7432  255 255 255
-43.2596 39.5387 -71.6615  255 255 255
-75.586 35.5726 -51.1085  255 255 255
56.0315 27.8461 1.46337  255 255 255
-70.908 36.5104 -56.5602  255 255 255
-29.0169 39.064 -81.707  255 255 255
-56.7912 36.6788 -65.4783  255 255 255
67.5588 22.9484 28.7567  255 255 255
-90.9891 33.9062 -45.1865  255 255 255
-92.0279 33.7015 -45.4783  255 255 255
57.8725 26.0263 5.56122  255 255 255
57.8701 26.0259 5.56464  255 255 255
57.5324 26.0851 4.95705  255 255 255
68.1871 22.2975 30.0014  255 255 255
-75.6612 34.508 -55.6475  255 255 255
4.17957 38.7142 -88.0528  255 255 255
58.3138 25.6242 5.25702  255 255 255
-69.142 34.6706 -59.5248  255 255 255
60.9328 24.5088 12.2668  255 255 255
60.9955 24.5317 12.2061  255 255 255
-42.1867 36.4561 -75.301  255 255 255
57.0939 25.6868 2.97601  255 255 255
65.6723 38.9164 -86.7988  255 255 255
-86.2872 32.9735 -49.8206  255 255 255
67.9848 21.809 28.2939  255 255 255
58.8131 31.5741 -41.5443  255 255 255
-79.1233 33.4509 -58.4761  255 255 255
58.8321 24.1974 6.72592  255 255 255
-39.7364 34.75 -77.0724  255 255 255
59.2556 29.5183 -39.9105  255 255 255
63.5969 28.3375 -31.3128  255 255 255
63.7027 28.3824 -31.5622  255 255 255
66.4891 20.5294 25.0831  255 255 255
-7.80953 33.5072 -80.7189  255 255 255
-94.2967 29.6416 -47.0984  255 255 255
5.19948 33.1114 -80.1311  255 255 255
65.9988 20.2592 22.2214  255 255 255
-79.7906 30.4923 -61.9949  255 255 255
59.0723 21.9162 6.27387  255 255 255
59.0673 27.5337 -42.0978  255 255 255
2.39363 30.4679 -76.6928  255 255 255
-69.3751 29.0084 -62.9551  255 255 255
68.2768 18.315 28.8935  255 255 255
70.5281 17.7235 33.2363  255 255 255
64.341 24.8268 -30.2992  255 255 255
-90.5471 27.2132 -50.6931  255 255 255
63.4496 24.908 -32.115  255 255 255
63.6099 24.9555 -32.2985  255 255 255
70.8271 17.281 33.7983  255 255 255
-70.0749 28.0837 -63.7992  255 255 255
-91.1909 26.8425 -53.3206  255 255 255
57.9716 20.0461 1.87799  255 255 255
66.2433 17.8622 22.0905  255 255 255
62.2627 24.2491 -35.2986  255 255 255
-70.3112 27.188 -63.6366  255 255 255
-69.849 27.1961 -65.0049  255 255 255
28.511 27.8419 -73.7563  255 255 255
66.8956 17.5384 23.44  255 255 255
-88.4712 25.1759 -54.1985  255 255 255
62.4018 17.7687 10.8041  255 255 255
61.9576 17.6357 10.2844  255 255 255
5.61671 25.0961 -68.8399  255 255 255
59.5105 17.9243 5.69282  255 255 255
59.7242 17.9693 5.28806  255 255 255
59.7765 17.9953 5.23157  255 255 255
3.60169 24.8127 -69.5912  255 255 255
58.5688 18.1173 0.939877  255 255 255
-37.9498 24.3833 -68.7213  255 255 255
57.0155 18.1128 -2.54942  255 255 255
56.9612 18.074 -2.27478  255 255 255
-75.4723 24.2332 -63.3229  255 255 255
66.4371 15.843 21.2348  255 255 255
-88.6394 23.3026 -53.5764  255 255 255
60.1304 16.7181 4.79007  255 255 255
-86.0277 22.5745 -55.2749  255 255 255
66.4505 15.2396 20.6629  255 255 255
27.6333 22.9535 -67.2068  255 255 255
-41.5139 22.1933 -66.3868  255 255 255
-85.4679 21.6018 -54.4379  255 255 255
-86.1957 21.9558 -57.4311  255 255 255
-74.2929 22.4904 -66.994  255 255 255
0.636101 21.6778 -65.97  255 255 255
-13.6366 21.0405 -64.9211  255 255 255
-13.651 21.0425 -65.0679  255 255 255
-35.4428 20.1608 -63.5141  255 255 255
71.6068 12.2579 32.8507  255 255 255
-8.84884 17.3652 -60.1928  255 255 255
-10.18 16.9803 -59.7072  255 255 255
-1.1127 16.4834 -58.9111  255 255 255
61.5718 12.3102 5.68181  255 255 255
-15.2769 16.2073 -59.3586  255 255 255
61.8208 11.5651 5.74831  255 255 255
-11.9044 15.1924 -57.4977  255 255 255
-11.8819 15.1698 -57.4493  255 255 255
-12.6859 14.9691 -57.1045  255 255 255
58.8887 10.963 -2.31758  255 255 255
58.8862 10.9678 -2.31746  255 255 255
60.5919 10.265 1.79475  255 255 255
0.337186 8.25814 22.1069  255 255 255
59.4977 10.0312 -1.13674  255 255 255
72.34 7.76367 31.1054  255 255 255
60.7316 8.85792 1.181  255 255 255
70.6544 7.39459 27.6966  255 255 255
-58.2807 10.8566 -52.6462  255 255 255
65.6202 7.4897 14.0296  255 255 255
-17.0592 10.1294 -50.7375  255 255 255
-17.0464 10.1389 -50.9551  255 255 255
65.8595 6.94981 14.9633  255 255 255
-23.2187 9.2362 -49.8178  255 255 255
-25.7785 9.09771 -49.3783  255 255 255
5.7554 5.53699 24.2853  255 255 255
52.9162 8.72096 -48.7339  255 255 255
55.5841 7.33351 -14.5594  255 255 255
70.7069 5.94544 25.5515  255 255 255
70.6937 5.94846 25.567  255 255 255
-44.5579 8.35734 -48.8741  255 255 255
73.3049 5.27983 32.0775  255 255 255
70.9475 5.43532 25.9293  255 255 255
66.8168 5.69955 16.6299  255 255 255
-26.4819 7.81513 -48.4442  255 255 255
-26.4668 7.76018 -47.8228  255 255 255
65.8626 5.62405 12.3475  255 255 255
63.9599 5.52685 7.42899  255 255 255
62.5836 5.45009 3.54238  255 255 255
6.59402 4.30035 24.6418  255 255 255
-36.0895 6.88132 -48.6753  255 255 255
-27.2128 6.65535 -46.5584  255 255 255
-28.3398 6.27188 -45.6409  255 255 255
65.8879 4.50014 11.5744  255 255 255
67.2933 4.39836 15.1687  255 255 255
-27.3629 5.82273 -45.5622  255 255 255
-27.4118 5.83256 -45.4918  255 255 255
-42.2161 5.92248 -46.021  255 255 255
65.8062 4.20933 10.6898  255 255 255
-51.1061 5.38181 -45.1716  255 255 255
71.7738 3.50118 26.5817  255 255 255
66.4102 3.7184 12.1914  255 255 255
70.6805 3.42711 23.5248  255 255 255
63.7022 3.79799 5.80512  255 255 255
67.8897 3.44916 16.3873  255 255 255
-41.086 4.47863 -43.8977  255 255 255
-13.9707 2.63682 27.2522  255 255 255
-13.9314 2.71823 26.5767  255 255 255
66.6103 3.22131 12.0355  255 255 255
-27.6655 4.26738 -43.3903  255 255 255
-27.6654 4.28062 -43.4293  255 255 255
68.0187 2.98224 15.8574  255 255 255
-12.942 2.47386 28.5326  255 255 255
68.7757 2.93323 17.8838  255 255 255
-78.1826 4.56224 -46.2501  255 255 255
67.1892 2.82794 14.2645  255 255 255
70.5843 2.66122 20.8886  255 255 255
64.9176 2.68767 7.89597  255 255 255
66.8795 2.49862 12.4779  255 255 255
66.8795 2.49863 12.4779  255 255 255
67.9777 2.35431 15.4846  255 255 255
-41.4356 3.21845 -41.7359  255 255 255
-42.5918 3.12101 -42.0632  255 255 255
-15.5515 1.58585 27.4616  255 255 255
69.2693 1.62141 16.3939  255 255 255
68.6895 1.67116 17.1862  255 255 255
66.8619 1.64824 11.9747  255 255 255
66.8564 1.63836 11.9718  255 255 255
73.3135 1.43621 29.2569  255 255 255
69.6063 1.44626 19.5562  255 255 255
-78.0152 2.6737 -42.8365  255 255 255
68.7721 1.25927 16.722  255 255 255
70.8352 1.0198 23.1425  255 255 255
70.8352 1.0198 23.1425  255 255 255
68.6343 1.01799 16.2178  255 255 255
68.6343 1.01798 16.2178  255 255 255
-50.0534 1.621 -40.7834  255 255 255
65.9046 1.0621 8.93195  255 255 255
-42.8036 1.53069 -39.5647  255 255 255
68.4499 0.772747 15.5865  255 255 255
73.8813 0.542747 30.4189  255 255 255
66.2003 0.540966 9.82086  255 255 255
72.0963 0.376219 25.1361  255 255 255
72.6571 0.427045 26.3147  255 255 255
71.5978 0.343286 23.6348  255 255 255
69.4877 0.234884 18.1413  255 255 255
-17.7992 0.0649777 26.8813  255 255 255
62.4068 0.18843 -0.729913  255 255 255
71.1236 0.0708397 22.3856  255 255 255
62.2857 -0.335445 -1.12707  255 255 255
62.3075 -0.331596 -1.17397  255 255 255
70.1247 -0.3221 19.1894  255 255 255
70.0719 -0.361475 19.2574  255 255 255
70.7956 -0.436244 21.2784  255 255 255
-7.69057 -0.579469 33.4447  255 255 255
11.9156 -0.785893 30.9197  255 255 255
69.4384 -0.685602 17.0729  255 255 255
69.7037 -0.730001 18.1503  255 255 255
70.8635 -0.850349 20.543  255 255 255
67.3134 -0.836249 11.2612  255 255 255
74.2487 -1.01565 29.7575  255 255 255
70.4812 -1.20795 19.8898  255 255 255
-15.4938 -1.58408 30.4216  255 255 255
64.5577 -1.91556 2.45668  255 255 255
69.4525 -1.73253 16.2813  255 255 255
73.1161 -1.76585 25.8841  255 255 255
72.2783 -1.7872 27.1038  255 255 255
67.2664 -2.0404 11.9908  255 255 255
71.0961 -2.13699 20.2018  255 255 255
71.0961 -2.137 20.2019  255 255 255
68.3581 -2.35474 13.4663  255 255 255
-16.0314 -2.19539 30.6044  255 255 255
-20.3838 -2.44347 25.3965  255 255 255
69.0829 -2.95006 15.0896  255 255 255
69.0713 -2.94623 15.1037  255 255 255
56.7946 -3.61619 -17.824  255 255 255
57.0302 -3.64561 -18.1564  255 255 255
-47.46 -3.53509 -33.8652  255 255 255
70.5389 -3.20162 17.8095  255 255 255
70.5389 -3.20162 17.8096  255 255 255
56.5347 -4.17879 -19.5174  255 255 255
63.2708 -3.88798 -1.98347  255 255 255
70.5524 -4.03483 17.6201  255 255 255
70.5276 -4.03473 17.6404  255 255 255
-18.2037 -3.59391 29.3312  255 255 255
-17.4763 -3.70396 30.0221  255 255 255
-15.7578 -3.75757 31.936  255 255 255
-73.0083 -4.99371 -33.0764  255 255 255
75.031 -4.81145 29.4525  255 255 255
59.8032 -6.11534 -12.9123  255 255 255
70.3014 -5.2376 17.4611  255 255 255
-2.10091 -4.54077 37.7707  255 255 255
-72.7138 -6.13782 -31.4274  255 255 255
70.9945 -5.49993 17.4492  255 255 255
72.1233 -5.55093 21.3291  255 255 255
55.6519 -7.23832 -25.1885  255 255 255
71.2346 -6.08042 18.0926  255 255 255
72.2232 -6.18579 21.1585  255 255 255
71.9352 -6.30505 20.1625  255 255 255
-30.9271 -6.24226 13.7646  255 255 255
-18.9728 -5.75113 29.9244  255 255 255
68.3315 -6.96393 9.7005  255 255 255
-76.0495 -7.68771 -30.0779  255 255 255
60.5493 -8.08243 -12.7503  255 255 255
68.1313 -7.25278 8.93351  255 255 255
73.8561 -6.5942 24.6571  255 255 255
56.7432 -8.57516 -22.9874  255 255 255
-74.3859 -7.94233 -28.4264  255 255 255
-22.5786 -6.28788 24.3715  255 255 255
3.90887 -5.98817 37.6808  255 255 255
72.0799 -7.23788 19.5574  255 255 255
72.4526 -7.30817 21.8143  255 255 255
74.7963 -7.21599 27.5133  255 255 255
74.8295 -7.21102 27.5155  255 255 255
66.879 -8.37788 4.23567  255 255 255
70.8157 -7.7912 15.6273  255 255 255
72.1271 -7.64033 20.4866  255 255 255
-92.9078 -8.80266 -27.5451  255 255 255
-93.2231 -8.87152 -28.6003  255 255 255
55.4213 -9.93446 -25.4178  255 255 255
67.709 -8.61055 6.55034  255 255 255
73.3285 -7.8558 23.3916  255 255 255
-33.5722 -7.78721 14.9969  255 255 255
68.9315 -8.62481 10.36  255 255 255
62.2004 -9.69025 -8.8133  255 255 255
62.2003 -9.69024 -8.813  255 255 255
-25.3413 -7.7708 21.7642  255 255 255
6.20326 -7.36365 37.5638  255 255 255
73.6777 -8.51428 23.2022  255 255 255
57.4775 -11.3227 -23.1587  255 255 255
-124.554 -10.1424 -26.9382  255 255 255
73.3556 -9.07901 22.1734  255 255 255
-3.34492 -7.73048 39.104  255 255 255
-3.34837 -7.72139 39.1085  255 255 255
74.5664 -9.0851 25.653  255 255 255
74.0244 -9.13069 23.9699  255 255 255
60.3996 -11.5522 -15.0503  255 255 255
73.6215 -9.4837 22.7177  255 255 255
61.9837 -11.6643 -10.2102  255 255 255
66.9309 -11.01 2.50741  255 255 255
5.70684 -8.74487 38.1594  255 255 255
69.6425 -11.2453 9.96277  255 255 255
-26.196 -9.82261 24.3047  255 255 255
65.7885 -12.32 -1.67196  255 255 255
74.5398 -10.723 24.6116  255 255 255
65.6066 -12.916 -2.99331  255 255 255
66.7891 -12.6058 1.26111  255 255 255
66.8721 -12.6014 1.17054  255 255 255
75.5394 -11.2425 26.9461  255 255 255
59.585 -14.4843 -18.2299  255 255 255
59.585 -14.4844 -18.23  255 255 255
66.9908 -13.0495 1.27717  255 255 255
-58.5501 -13.6162 -21.0129  255 255 255
67.7794 -13.4777 2.85966  255 255 255
67.7787 -13.4763 2.86863  255 255 255
65.2574 -14.0538 -4.01509  255 255 255
-10.5599 -10.2882 38.334  255 255 255
76.0963 -11.832 27.7162  255 255 255
-14.4456 -10.584 35.6573  255 255 255
75.8728 -11.9678 27.1856  255 255 255
63.0744 -14.9742 -10.6632  255 255 255
69.6114 -13.7742 8.86302  255 255 255
75.788 -12.3078 26.7261  255 255 255
-83.7973 -14.6465 -21.5245  255 255 255
75.6219 -12.5178 25.6212  255 255 255
-84.5282 -14.864 -22.0148  255 255 255
-10.718 -10.9019 37.8751  255 255 255
-24.1884 -11.7215 27.1889  255 255 255
69.0074 -14.4016 6.22322  255 255 255
69.0467 -14.3938 6.24136  255 255 255
75.8675 -12.7682 27.6056  255 255 255
63.5038 -15.5796 -10.0176  255 255 255
60.7809 -16.6077 -17.125  255 255 255
-45.3298 -15.7244 -18.3084  255 255 255
6.20426 -11.6962 38.734  255 255 255
-17.1257 -12.0131 33.9205  255 255 255
-61.0345 -16.178 -17.7433  255 255 255
70.03 -15.5652 7.60098  255 255 255
61.6144 -17.9304 -15.4887  255 255 255
-58.9084 -16.9019 -17.0789  255 255 255
11.6735 -12.7842 36.4287  255 255 255
-19.7953 -13.3622 31.1082  255 255 255
68.4818 -17.2672 2.01789  255 255 255
69.8858 -16.8403 6.50992  255 255 255
69.8858 -16.8403 6.50987  255 255 255
68.6827 -17.3471 2.95076  255 255 255
-0.902088 -12.997 40.2689  255 255 255
-59.1175 -17.888 -14.9413  255 255 255
-59.2179 -17.9248 -15.5093  255 255 255
67.6799 -17.7654 -0.74716  255 255 255
-25.4365 -14.3938 28.2036  255 255 255
-71.5542 -18.4572 -15.2407  255 255 255
-12.9401 -13.9487 37.1253  255 255 255
-28.0346 -15.2062 25.9197  255 255 255
-54.0938 -19.5641 -13.3083  255 255 255
-27.6086 -15.6258 26.3323  255 255 255
-70.8101 -19.5337 -14.0983  255 255 255
11.8508 -15.1384 35.4673  255 255 255
69.808 -19.9599 4.14652  255 255 255
71.1907 -19.6468 8.1701  255 255 255
0.2499 -15.1709 40.1002  255 255 255
-66.7291 -21.3445 -11.7887  255 255 255
70.8963 -21.4926 5.31122  255 255 255
76.6593 -19.3518 25.3824  255 255 255
-5.2585 -16.5034 39.7626  255 255 255
-68.1234 -22.3659 -10.4881  255 255 255
6.78224 -17.0259 38.6936  255 255 255
-4.02219 -16.7935 39.7133  255 255 255
-22.1422 -17.3588 33.865  255 255 255
7.29572 -17.2608 38.385  255 255 255
70.404 -22.9726 3.09958  255 255 255
70.4244 -22.9693 3.054  255 255 255
-8.85828 -17.9452 38.5929  255 255 255
24.2735 -19.6006 30.414  255 255 255
-11.4346 -18.2554 37.5095  255 255 255
-11.4443 -18.2486 37.5675  255 255 255
-17.8283 -18.5928 35.7358  255 255 255
-17.8283 -18.5928 35.7358  255 255 255
70.3993 -24.5471 2.56905  255 255 255
53.504 -25.8382 -5.20935  255 255 255
-17.6949 -18.9653 36.2996  255 255 255
72.7692 -24.4696 8.08799  255 255 255
72.2398 -24.7864 7.76628  255 255 255
72.2622 -24.7873 7.72731  255 255 255
70.415 -25.4936 3.47684  255 255 255
56.0851 -26.6373 -3.79686  255 255 255
-23.125 -20.1973 32.5004  255 255 255
52.7054 -26.8683 -4.3732  255 255 255
11.9822 -20.5669 37.8123  255 255 255
68.4582 -27.7735 -2.87704  255 255 255
-22.2274 -20.9907 33.4103  255 255 255
72.2189 -26.88 6.87235  255 255 255
-51.0988 -26.933 -4.0239  255 255 255
-9.20055 -21.0093 38.4369  255 255 255
53.2352 -28.703 -1.49939  255 255 255
53.2416 -28.6896 -1.55205  255 255 255
-24.7393 -22.1373 34.4073  255 255 255
53.7388 -29.4321 -0.830728  255 255 255
53.7388 -29.4321 -0.830635  255 255 255
74.3232 -28.1429 9.92985  255 255 255
74.6893 -28.1668 9.65326  255 255 255
-9.13702 -22.2156 40.3723  255 255 255
-26.326 -23.544 34.2057  255 255 255
9.09779 -23.1926 39.367  255 255 255
77.1741 -28.4679 18.4664  255 255 255
-16.151 -23.8925 37.4426  255 255 255
-16.151 -23.8925 37.4426  255 255 255
-22.8151 -24.2737 37.119  255 255 255
-27.7787 -25.5523 31.1031  255 255 255
78.1493 -30.1955 19.1262  255 255 255
79.1542 -29.6537 23.5189  255 255 255
17.2381 -25.5784 38.3741  255 255 255
18.4735 -25.6083 38.7084  255 255 255
-14.6086 -25.1174 38.5976  255 255 255
-16.8865 -25.3366 38.8566  255 255 255
-12.7527 -25.5196 38.893  255 255 255
63.9903 -34.2047 5.67892  255 255 255
10.0864 -26.4275 39.7668  255 255 255
77.8971 -32.6211 17.3448  255 255 255
77.2353 -32.4457 18.3126  255 255 255
-17.0125 -26.0983 39.3597  255 255 255
79.7666 -32.4804 22.0611  255 255 255
78.9659 -32.1236 24.0302  255 255 255
-11.9388 -26.9663 40.6739  255 255 255
-22.8019 -28.649 34.2882  255 255 255
12.7736 -27.8346 41.2299  255 255 255
3.30635 -27.7377 41.4238  255 255 255
-19.2752 -27.8238 41.6991  255 255 255
-7.81704 -28.3232 42.3453  255 255 255
-7.83646 -28.3105 42.3857  255 255 255
61.7772 -37.758 10.3088  255 255 255
-66.1765 -36.3219 6.53509  255 255 255
-50.3843 -36.3917 7.1809  255 255 255
7.71687 -29.1701 43.242  255 255 255
-49.3044 -36.6618 8.12868  255 255 255
-12.3268 -30.0598 41.6074  255 255 255
6.04975 -29.9517 44.2871  255 255 255
6.05612 -29.9673 44.2573  255 255 255
-66.0281 -37.4159 8.33242  255 255 255
-48.8374 -37.3771 9.00017  255 255 255
-50.8076 -37.7191 8.88729  255 255 255
-2.84449 -30.2413 43.9796  255 255 255
50.1478 -39.3505 12.2753  255 255 255
-13.859 -31.7069 39.4233  255 255 255
-23.2335 -34.2956 30.1902  255 255 255
-1.0191 -32.638 42.1303  255 255 255
16.4641 -35.8104 33.2141  255 255 255
-45.9731 -39.9713 12.9091  255 255 255
-23.2269 -36.0971 29.34  255 255 255
56.5899 -41.9805 15.1271  255 255 255
12.0226 -36.6243 35.1557  255 255 255
3.02537 -35.7441 39.7362  255 255 255
-40.7595 -41.4795 16.7826  255 255 255
69.7483 -44.1088 19.6949  255 255 255
0.0625859 -39.1597 37.687  255 255 255
0.578929 -39.4912 37.2798  255 255 255
0.540673 -39.4618 37.4349  255 255 255
-0.0724071 -40.0284 36.9809  255 255 255
-0.105764 -39.9626 37.1855  255 255 255
-18.589 -41.3117 31.7888  255 255 255
4.53229 -40.8873 35.4858  255 255 255
4.78937 -42.2659 34.5468  255 255 255
-9.11749 -42.4656 33.6951  255 255 255
60.9233 -50.843 28.3335  255 255 255
-16.43 -45.6053 35.1318  255 255 255
36.1477 -50.9506 26.7141  255 255 255
34.1829 -51.3611 27.3528  255 255 255
34.0301 -51.2196 27.6921  255 255 255
34.7321 -51.4392 27.2671  255 255 255
49.7021 -52.1175 29.0774  255 255 255
-40.3232 -50.7843 26.5304  255 255 255
-16.6856 -49.7402 31.9038  255 255 255
48.1971 -53.1532 29.5975  255 255 255
30.4376 -52.7263 28.8872  255 255 255
65.9792 -53.2643 31.8825  255 255 255
-28.7576 -51.3392 29.5644  255 255 255
41.5259 -53.6979 30.2095  255 255 255
32.3503 -53.8293 30.6096  255 255 255
49.5325 -54.2342 32.0493  255 255 255
-6.72397 -51.7572 34.4225  255 255 255
68.9392 -55.143 35.3924  255 255 255
28.9367 -54.8719 33.2985  255 255 255
60.5585 -55.586 35.3627  255 255 255
39.5019 -58.708 36.8638  255 255 255
28.269 -58.5988 36.8346  255 255 255
-31.8045 -57.4267 35.1437  255 255 255
22.867 -59.2033 37.6556  255 255 255
-3.80289 -59.246 37.5547  255 255 255
-44.3286 -59.3555 36.5216  255 255 255
-14.901 -59.8402 38.8401  255 255 255
54.2821 -61.4133 42.6332  255 255 255
-13.7168 -60.2347 38.7986  255 255 255
-21.7441 -60.253 39.0937  255 255 255
-13.2027 -60.746 39.573  255 255 255
-88.6783 -61.2693 36.7805  255 255 255
32.293 -62.0669 42.0719  255 255 255
-16.7046 -61.0425 39.947  255 255 255
39.0318 -62.4463 43.6568  255 255 255
-16.934 -61.531 40.6455  255 255 255
-6.76221 -62.5687 42.6635  255 255 255
20.8385 -63.2108 43.8701  255 255 255
-41.9442 -62.4929 41.2261  255 255 255
-10.8269 -62.7538 42.1732  255 255 255
-10.8054 -62.6941 42.2948  255 255 255
62.1608 60.0484 -12.3724  255 255 255
-55.4471 67.4209 -43.0354  255 255 255
-44.1496 68.9619 -48.7155  255 255 255
64.566 88.412 -104.856  255 255 255
-72.653 64.2365 -34.3257  255 255 255
-72.6525 64.1162 -34.0802  255 255 255
6.60872 77.3175 -75.9616  255 255 255
63.0305 58.5711 -11.3663  255 255 255
53.4533 85.3876 -101.311  255 255 255
-88.516 60.6442 -24.9261  255 255 255
-88.7379 61.0067 -26.3049  255 255 255
-66.696 63.961 -38.1265  255 255 255
-34.5638 68.6773 -55.4581  255 255 255
-6.77034 73.4474 -70.9223  255 255 255
34.036 80.6395 -92.3115  255 255 255
34.036 80.6395 -92.3116  255 255 255
-77.1436 61.8432 -32.972  255 255 255
72.6703 86.9133 -110.63  255 255 255
-59.5685 63.9958 -42.5232  255 255 255
78.9338 87.613 -113.956  255 255 255
61.687 57.1795 -15.478  255 255 255
-71.4051 61.1377 -35.7916  255 255 255
-85.8789 58.9051 -28.537  255 255 255
40.2717 79.4149 -96.5829  255 255 255
58.3292 58.4378 -23.4354  255 255 255
29.756 77.5527 -90.7463  255 255 255
64.3977 54.5453 -9.20901  255 255 255
-55.0746 63.1078 -46.6599  255 255 255
-55.0976 63.1089 -46.7461  255 255 255
29.6919 76.1551 -91.8886  255 255 255
-72.6355 59.9495 -37.4327  255 255 255
-26.5611 66.7432 -62.5907  255 255 255
-26.5362 66.7348 -62.6  255 255 255
57.6568 45.1756 18.9711  255 255 255
56.0119 46.0692 14.6627  255 255 255
37.5492 76.4056 -93.8662  255 255 255
58.1548 44.4658 19.7007  255 255 255
35.0716 76.0132 -95.667  255 255 255
-57.0417 60.6209 -47.4353  255 255 255
-57.0644 60.4874 -46.898  255 255 255
-71.5489 58.26 -39.5176  255 255 255
-54.7896 60.3369 -48.8752  255 255 255
-54.7599 60.3267 -48.9144  255 255 255
-72.6638 57.7178 -38.697  255 255 255
-41.5174 62.0715 -56.6393  255 255 255
-5.20571 66.5312 -75.9139  255 255 255
61.4387 40.0322 28.1796  255 255 255
-57.255 58.6042 -48.4947  255 255 255
84.6347 80.691 -122.469  255 255 255
-9.10296 65.3234 -74.691  255 255 255
61.0053 52.2184 -20.6256  255 255 255
59.4115 41.5528 19.7146  255 255 255
60.6322 40.4715 23.5162  255 255 255
10.4224 68.0338 -85.543  255 255 255
85.4966 79.4096 -124.245  255 255 255
-126.029 67.0556 -82.2091  255 255 255
-2.76758 64.88 -79.2468  255 255 255
61.8683 39.5581 24.2274  255 255 255
-128.897 67.7639 -87.9044  255 255 255
57.5531 41.3978 14.6176  255 255 255
-6.01037 63.4116 -78.1991  255 255 255
-6.1387 63.2087 -77.1064  255 255 255
-18.5816 61.3382 -72.5241  255 255 255
11.9857 65.1391 -86.1487  255 255 255
63.9508 36.1552 33.5843  255 255 255
-55.4368 56.1263 -52.4567  255 255 255
-13.8036 61.6269 -75.0231  255 255 255
-13.7538 61.6374 -75.0554  255 255 255
27.8836 67.885 -97.496  255 255 255
58.3653 51.1606 -28.371  255 255 255
58.4897 51.2947 -28.6866  255 255 255
59.3144 39.5618 18.7706  255 255 255
60.2278 50.1689 -25.359  255 255 255
60.2278 50.1689 -25.359  255 255 255
-25.1128 59.3181 -68.8152  255 255 255
-17.8553 60.229 -73.4733  255 255 255
64.0999 36.5169 29.4335  255 255 255
-87.2093 50.9427 -34.3946  255 255 255
37.0769 67.8295 -102.993  255 255 255
-62.1236 53.8478 -48.8783  255 255 255
-62.1236 53.8479 -48.8783  255 255 255
29.3474 66.6389 -99.0353  255 255 255
-7.05797 61.1279 -79.5073  255 255 255
-24.404 58.3728 -70.243  255 255 255
-70.698 52.1695 -44.157  255 255 255
-38.632 56.233 -62.4113  255 255 255
-25.9135 57.7818 -69.5236  255 255 255
-25.9058 57.8001 -69.5524  255 255 255
-25.8762 57.8372 -69.856  255 255 255
-84.4145 49.7927 -35.0079  255 255 255
-23.5062 57.3544 -71.7394  255 255 255
-6.26369 59.5817 -80.9476  255 255 255
-44.5289 54.2866 -59.7544  255 255 255
-84.2388 49.4423 -37.715  255 255 255
64.4218 34.9698 28.7033  255 255 255
58.204 48.5709 -30.8484  255 255 255
-17.3838 55.6244 -69.8128  255 255 255
-6.22937 58.1209 -82.3609  255 255 255
64.8831 34.0863 29.1451  255 255 255
66.8668 32.7789 34.3348  255 255 255
67.2462 31.9469 37.9514  255 255 255
-133.42 63.8977 -103.909  255 255 255
58.6807 46.7972 -30.9782  255 255 255
58.7245 46.848 -31.0551  255 255 255
60.3216 46.0036 -27.2059  255 255 255
-8.56394 56.7415 -81.7746  255 255 255
-6.39233 56.9703 -82.7191  255 255 255
-57.4733 49.9389 -55.4277  255 255 255
-41.1248 51.7806 -64.4236  255 255 255
-41.7276 50.9301 -64.8575  255 255 255
-44.9547 50.3962 -62.7693  255 255 255
-57.3515 47.905 -56.4344  255 255 255
-71.1695 46.1147 -48.9361  255 255 255
-44.9906 48.8219 -63.9859  255 255 255
-74.5101 45.289 -46.3359  255 255 255
-48.2172 48.1959 -62.5063  255 255 255
-27.6222 50.7154 -74.2307  255 255 255
-68.467 45.6942 -50.9462  255 255 255
-68.467 45.6942 -50.9462  255 255 255
-46.7383 47.8663 -62.4002  255 255 255
-46.6134 48.1754 -62.8899  255 255 255
-63.2385 46.1448 -54.2059  255 255 255
59.3808 32.8731 14.156  255 255 255
-54.4406 45.9014 -58.2888  255 255 255
-47.7018 45.905 -64.3239  255 255 255
56.5825 33.0316 6.59482  255 255 255
56.16 32.9739 5.9644  255 255 255
-25.5833 47.473 -77.7977  255 255 255
-57.2908 43.6702 -59.933  255 255 255
-57.2037 43.6129 -59.8305  255 255 255
-57.7056 42.8963 -60.4666  255 255 255
-57.7175 42.8706 -60.373  255 255 255
-4.85275 48.209 -90.8858  255 255 255
-4.75659 48.2735 -91.2205  255 255 255
-88.8417 39.6686 -41.8387  255 255 255
-59.2081 42.379 -59.699  255 255 255
61.9618 37.1989 -28.2252  255 255 255
-81.3704 39.7748 -47.0575  255 255 255
-81.3232 39.7702 -46.9556  255 255 255
62.8855 35.5537 -25.8313  255 255 255
-44.2145 41.5954 -70.1298  255 255 255
63.6856 34.8389 -25.1729  255 255 255
60.4722 27.6546 13.6021  255 255 255
64.2486 33.9259 -23.9167  255 255 255
63.3492 34.1755 -26.4343  255 255 255
-77.93 37.034 -49.3556  255 255 255
59.5926 35.1591 -36.6928  255 255 255
68.4348 24.159 31.9089  255 255 255
-134.927 46.2624 -101.627  255 255 255
63.9569 33.0489 -25.6354  255 255 255
63.9638 33.0571 -25.6701  255 255 255
60.2682 26.6893 12.4285  255 255 255
-91.6013 34.807 -43.8839  255 255 255
-91.6814 34.8161 -44.1262  255 255 255
-72.2297 36.2933 -55.9857  255 255 255
-65.1527 36.7739 -59.9461  255 255 255
65.8982 24.1932 25.3884  255 255 255
-90.6018 34.6621 -45.4507  255 255 255
68.0525 23.0208 29.9075  255 255 255
67.9922 23.0038 30.0025  255 255 255
69.3224 22.3821 33.3666  255 255 255
56.4963 38.7478 -86.5016  255 255 255
-63.936 34.1657 -62.331  255 255 255
-37.8737 35.3714 -79.1175  255 255 255
-90.6004 31.3253 -47.0345  255 255 255
-84.8436 31.745 -51.7164  255 255 255
-80.7162 31.9755 -59.2409  255 255 255
-79.2324 31.9076 -58.8995  255 255 255
-124.734 36.1827 -88.1318  255 255 255
58.155 22.6114 4.24705  255 255 255
58.1612 22.6138 4.23119  255 255 255
61.1259 21.5501 11.9935  255 255 255
66.4611 19.9214 24.2802  255 255 255
58.3226 21.9077 4.11682  255 255 255
67.0931 19.5988 24.4402  255 255 255
-3.94407 31.321 -77.9157  255 255 255
70.3033 18.3387 32.6697  255 255 255
70.4762 18.2289 33.2861  255 255 255
4.83233 29.6891 -75.8039  255 255 255
62.9451 19.6315 14.7285  255 255 255
1.88656 29.5111 -75.928  255 255 255
57.8308 20.7719 1.77932  255 255 255
-93.5431 26.4081 -50.3651  255 255 255
4.35461 27.8542 -73.5942  255 255 255
-49.3803 28.0983 -74.7065  255 255 255
56.9671 19.9582 -0.824546  255 255 255
3.57098 26.7424 -71.0194  255 255 255
5.04318 27.0298 -72.125  255 255 255
4.99707 27.0267 -72.0177  255 255 255
66.436 17.2942 22.3251  255 255 255
-42.24 27.1221 -73.5806  255 255 255
-10.1759 26.1564 -71.2664  255 255 255
-10.2158 26.2031 -71.4292  255 255 255
5.95589 26.2074 -71.4758  255 255 255
-13.7715 26.106 -71.0499  255 255 255
-119.298 27.296 -74.859  255 255 255
-89.112 24.2798 -54.2438  255 255 255
40.4347 24.4796 -68.3388  255 255 255
-38.94 23.9606 -67.9344  255 255 255
-92.4392 22.1954 -53.0121  255 255 255
-117.488 24.4155 -71.5925  255 255 255
71.1293 14.0191 31.7278  255 255 255
-91.4397 21.7234 -52.6773  255 255 255
61.3265 15.9172 6.61553  255 255 255
71.7463 13.3368 33.5358  255 255 255
-10.8544 21.5015 -65.1558  255 255 255
28.1431 21.4069 -64.8994  255 255 255
-93.2766 20.3931 -54.4694  255 255 255
70.8197 12.5517 30.7514  255 255 255
71.3191 12.4254 32.0533  255 255 255
-20.7574 19.825 -65.1502  255 255 255
70.9887 12.4172 31.4063  255 255 255
71.0527 12.4127 31.329  255 255 255
70.9517 11.8959 30.9681  255 255 255
71.6222 11.8373 31.8951  255 255 255
71.4297 11.53 30.8999  255 255 255
71.4297 11.53 30.9  255 255 255
-62.2543 17.6864 -60.4722  255 255 255
55.8294 12.9236 -6.891  255 255 255
60.0389 12.583 0.778601  255 255 255
65.7379 11.5236 15.9682  255 255 255
70.6625 10.5577 29.2649  255 255 255
71.1664 10.2819 30.2455  255 255 255
-12.0819 14.2387 -56.1487  255 255 255
59.5872 10.7173 -0.919484  255 255 255
59.8747 10.1966 -0.361415  255 255 255
66.4077 8.7955 15.7539  255 255 255
59.9243 8.99396 -0.884543  255 255 255
-18.2589 11.1443 -52.1223  255 255 255
66.6529 8.08137 16.0879  255 255 255
66.6562 8.07799 16.1001  255 255 255
-5.35162 6.74461 22.8568  255 255 255
71.1331 6.71171 27.4532  255 255 255
71.1157 6.70768 27.4798  255 255 255
-58.1423 9.96867 -50.7805  255 255 255
64.9152 7.23456 10.6179  255 255 255
64.8857 7.19877 10.6415  255 255 255
-45.9951 8.80116 -49.529  255 255 255
66.3472 6.24258 16.1104  255 255 255
-25.787 8.35768 -48.571  255 255 255
-92.1628 8.8398 -48.8827  255 255 255
-49.8783 8.0468 -48.2419  255 255 255
60.3679 6.63835 -2.89675  255 255 255
-46.4361 7.53756 -50.9031  255 255 255
-42.1376 6.75239 -45.4613  255 255 255
-49.1156 6.47713 -46.8  255 255 255
71.9046 4.29284 27.2719  255 255 255
62.388 4.32126 2.14663  255 255 255
-131.306 6.66629 -47.0639  255 255 255
-17.0022 3.00112 23.3872  255 255 255
64.9969 3.48973 7.47432  255 255 255
-32.7375 4.24134 -43.975  255 255 255
66.1161 3.20932 11.0493  255 255 255
66.147 3.20943 11.0032  255 255 255
-75.6609 4.67924 -44.8372  255 255 255
-53.8855 4.16389 -43.0832  255 255 255
66.4776 2.81311 11.5006  255 255 255
67.5907 2.57883 14.6838  255 255 255
67.6038 2.58011 14.6606  255 255 255
69.4326 2.14218 21.3622  255 255 255
67.1054 1.7991 12.7767  255 255 255
68.7026 1.93113 17.1315  255 255 255
68.4039 1.63709 16.1075  255 255 255
-20.6729 1.46032 10.7723  255 255 255
66.3536 0.745401 10.5033  255 255 255
66.3535 0.745388 10.5034  255 255 255
-21.8483 0.528176 11.2072  255 255 255
72.2836 0.271871 25.7178  255 255 255
72.2855 0.279771 25.7087  255 255 255
72.2854 0.279758 25.7088  255 255 255
67.1076 0.0157108 12.5051  255 255 255
66.7055 -0.16375 10.4808  255 255 255
69.518 -0.254514 17.5105  255 255 255
69.5199 -0.253739 17.5109  255 255 255
-10.0757 -0.532572 33.2337  255 255 255
63.297 -0.789139 -0.699096  255 255 255
-21.8295 -0.61685 11.8972  255 255 255
60.2422 -0.998317 -7.48321  255 255 255
60.5457 -1.0219 -8.12494  255 255 255
69.21 -0.941556 16.2538  255 255 255
70.378 -0.979602 19.3998  255 255 255
71.4662 -0.972314 22.6293  255 255 255
11.2385 -1.49606 31.8163  255 255 255
70.9195 -1.85647 19.4337  255 255 255
67.4186 -2.14795 10.0205  255 255 255
-49.3955 -2.34857 -35.6098  255 255 255
69.269 -2.12321 15.6847  255 255 255
69.2773 -2.12227 15.6712  255 255 255
-49.3205 -3.08322 -35.0293  255 255 255
58.5751 -3.37126 -13.9233  255 255 255
68.9117 -3.02516 14.2019  255 255 255
70.7273 -3.02424 18.5275  255 255 255
59.1956 -4.01952 -13.1908  255 255 255
-46.1159 -3.98126 -33.2782  255 255 255
-6.63154 -3.05503 36.5217  255 255 255
66.0289 -4.01617 5.81323  255 255 255
69.3484 -3.73295 15.1949  255 255 255
58.1963 -4.70303 -16.9791  255 255 255
66.3886 -4.54241 6.41648  255 255 255
66.4023 -4.55006 6.40952  255 255 255
-11.1519 -4.3237 35.5594  255 255 255
-49.9554 -6.84426 -29.686  255 255 255
66.0061 -6.40859 4.25375  255 255 255
66.14 -6.3831 4.00508  255 255 255
-75.7686 -6.86261 -30.3196  255 255 255
68.0274 -6.43648 8.7862  255 255 255
-3.718 -5.28114 38.2971  255 255 255
67.4825 -7.12064 6.95226  255 255 255
-1.15281 -5.67336 38.6465  255 255 255
73.0233 -6.59744 22.7401  255 255 255
-70.8946 -7.81193 -28.5716  255 255 255
66.7315 -7.47326 4.8288  255 255 255
68.5603 -7.7813 9.37077  255 255 255
73.1971 -8.0345 22.661  255 255 255
66.4942 -9.12798 2.57173  255 255 255
73.7633 -8.17149 25.0048  255 255 255
69.5503 -8.98834 12.1756  255 255 255
66.1429 -9.77964 1.28394  255 255 255
57.7292 -11.4045 -21.7842  255 255 255
70.3926 -9.76452 13.2937  255 255 255
70.3926 -9.76452 13.2937  255 255 255
-115.623 -10.5282 -25.1914  255 255 255
-51.3734 -11.089 -24.0592  255 255 255
-20.0604 -8.47663 29.5166  255 255 255
4.89295 -8.27351 38.3521  255 255 255
68.5404 -10.8584 7.29377  255 255 255
73.8857 -9.86982 23.2549  255 255 255
70.6496 -10.6838 13.3927  255 255 255
50.7945 -12.8532 -19.5555  255 255 255
60.3866 -13.0053 -14.7892  255 255 255
63.4526 -12.6237 -7.7392  255 255 255
68.363 -11.7307 6.18732  255 255 255
68.3631 -11.7307 6.1873  255 255 255
11.3333 -9.28963 36.168  255 255 255
70.8244 -11.4535 12.9511  255 255 255
-57.2266 -12.9017 -22.1824  255 255 255
69.4171 -11.8963 8.67833  255 255 255
-64.1354 -12.9187 -21.9401  255 255 255
-66.1381 -13.2648 -21.5393  255 255 255
-22.5181 -10.3085 26.5437  255 255 255
-54.9412 -13.5353 -20.8763  255 255 255
13.2699 -10.2065 34.5143  255 255 255
68.961 -12.6163 7.26685  255 255 255
68.961 -12.6163 7.2669  255 255 255
74.899 -11.3108 25.0346  255 255 255
74.9516 -11.3178 24.9641  255 255 255
65.9991 -13.2644 -1.68406  255 255 255
66.0231 -13.2651 -1.70017  255 255 255
71.034 -12.2384 12.7062  255 255 255
71.0309 -12.2282 12.7009  255 255 255
71.0606 -12.2286 12.6524  255 255 255
-65.3733 -13.7024 -20.9726  255 255 255
56.4654 -14.6285 -18.8283  255 255 255
-66.4661 -14.0268 -21.2466  255 255 255
66.509 -13.6244 -0.240464  255 255 255
66.3378 -13.6148 0.0310493  255 255 255
-71.4042 -14.0925 -21.3164  255 255 255
75.1934 -12.0065 24.8135  255 255 255
-63.1813 -14.4872 -20.3269  255 255 255
61.9024 -15.4621 -12.8639  255 255 255
-54.7064 -15.5691 -18.6735  255 255 255
65.6137 -15.4044 -3.13719  255 255 255
76.3959 -13.0873 27.4758  255 255 255
